# .PCD v0.7 - Point Cloud Data file format
VERSION 0.7
FIELDS x y z
SIZE 4 4 4
TYPE F F F
COUNT 1 1 1
WIDTH 1435
HEIGHT 1
VIEWPOINT 0 0 0 1 0 0 0
POINTS 1435
DATA ascii
-0.088770784 0.7720719 -2.309
-0.093609728 0.77240622 -2.3099999
-0.098410226 0.77240622 -2.3099999
-0.10321072 0.77240622 -2.3099999
-0.10801122 0.77240622 -2.3099999
-0.11281172 0.77240622 -2.3099999
-0.11761222 0.77240622 -2.3099999
-0.12241272 0.77240622 -2.3099999
-0.12721321 0.77240622 -2.3099999
-0.13207087 0.7727406 -2.3110001
-0.13681422 0.77240622 -2.3099999
-0.14167602 0.7727406 -2.3110001
-0.14647859 0.7727406 -2.3110001
-0.15128118 0.7727406 -2.3110001
-0.15608375 0.7727406 -2.3110001
-0.16088633 0.7727406 -2.3110001
-0.1656889 0.7727406 -2.3110001
-0.17620428 0.77675313 -2.323
0.085208856 0.78832185 -2.3429999
0.080031171 0.78529376 -2.3340001
0.074826479 0.78159273 -2.323
0.069667496 0.7778917 -2.312
0.064694516 0.77587295 -2.306
0.059902329 0.77587295 -2.306
0.055110142 0.77587295 -2.306
0.050339777 0.77620935 -2.3069999
0.045545511 0.77620935 -2.3069999
0.040751249 0.77620935 -2.3069999
0.035956983 0.77620935 -2.3069999
0.031162718 0.77620935 -2.3069999
0.026368454 0.77620935 -2.3069999
0.02157419 0.77620935 -2.3069999
0.016779926 0.77620935 -2.3069999
0.011985661 0.77620935 -2.3069999
0.0071945139 0.77654582 -2.3080001
0.0023981712 0.77654582 -2.3080001
-0.0023981712 0.77654582 -2.3080001
-0.0071945139 0.77654582 -2.3080001
-0.011990856 0.77654582 -2.3080001
-0.016787199 0.77654582 -2.3080001
-0.02158354 0.77654582 -2.3080001
-0.026379883 0.77654582 -2.3080001
-0.031189734 0.77688229 -2.309
-0.035988156 0.77688229 -2.309
-0.04076891 0.77654582 -2.3080001
-0.045584995 0.77688229 -2.309
-0.050383415 0.77688229 -2.309
-0.055181839 0.77688229 -2.309
-0.059980258 0.77688229 -2.309
-0.064778678 0.77688229 -2.309
-0.069577098 0.77688229 -2.309
-0.074375518 0.77688229 -2.309
-0.079173937 0.77688229 -2.309
-0.084008731 0.77721876 -2.3099999
-0.088809229 0.77721876 -2.3099999
-0.093609728 0.77721876 -2.3099999
-0.098410226 0.77721876 -2.3099999
-0.10321072 0.77721876 -2.3099999
-0.10801122 0.77721876 -2.3099999
-0.11281172 0.77721876 -2.3099999
-0.11761222 0.77721876 -2.3099999
-0.12241272 0.77721876 -2.3099999
-0.12721321 0.77721876 -2.3099999
-0.13207087 0.77755523 -2.3110001
-0.13687344 0.77755523 -2.3110001
-0.14167602 0.77755523 -2.3110001
-0.14647859 0.77755523 -2.3110001
-0.15128118 0.77755523 -2.3110001
-0.15608375 0.77755523 -2.3110001
-0.16088633 0.77755523 -2.3110001
-0.1656889 0.77755523 -2.3110001
-0.17605257 0.78091979 -2.3210001
0.085208856 0.79320312 -2.3429999
0.080031171 0.79015625 -2.3340001
0.074794263 0.78609377 -2.322
0.069667496 0.78270835 -2.312
0.064694516 0.78067708 -2.306
0.059928305 0.78101563 -2.3069999
0.055134039 0.78101563 -2.3069999
0.050339777 0.78101563 -2.3069999
0.045545511 0.78101563 -2.3069999
0.040751249 0.78101563 -2.3069999
0.035956983 0.78101563 -2.3069999
0.031162718 0.78101563 -2.3069999
0.026368454 0.78101563 -2.3069999
0.02157419 0.78101563 -2.3069999
0.016779926 0.78101563 -2.3069999
0.011990856 0.78135419 -2.3080001
0.0071945139 0.78135419 -2.3080001
0.0023981712 0.78135419 -2.3080001
-0.0023981712 0.78135419 -2.3080001
-0.0071945139 0.78135419 -2.3080001
-0.011990856 0.78135419 -2.3080001
-0.016787199 0.78135419 -2.3080001
-0.02158354 0.78135419 -2.3080001
-0.026379883 0.78135419 -2.3080001
-0.031176226 0.78135419 -2.3080001
-0.035988156 0.78169268 -2.309
-0.040786576 0.78169268 -2.309
-0.045584995 0.78169268 -2.309
-0.050383415 0.78169268 -2.309
-0.055181839 0.78169268 -2.309
-0.059980258 0.78169268 -2.309
-0.064778678 0.78169268 -2.309
-0.069577098 0.78169268 -2.309
-0.074375518 0.78169268 -2.309
-0.079173937 0.78169268 -2.309
-0.083972357 0.78169268 -2.309
-0.088809229 0.78203124 -2.3099999
-0.093609728 0.78203124 -2.3099999
-0.098410226 0.78203124 -2.3099999
-0.10321072 0.78203124 -2.3099999
-0.10801122 0.78203124 -2.3099999
-0.11281172 0.78203124 -2.3099999
-0.11761222 0.78203124 -2.3099999
-0.12241272 0.78203124 -2.3099999
-0.12726828 0.78236979 -2.3110001
-0.13207087 0.78236979 -2.3110001
-0.13687344 0.78236979 -2.3110001
-0.14167602 0.78236979 -2.3110001
-0.14647859 0.78236979 -2.3110001
-0.15128118 0.78236979 -2.3110001
-0.15608375 0.78236979 -2.3110001
-0.16088633 0.78236979 -2.3110001
-0.1656889 0.78236979 -2.3110001
-0.17612843 0.78609377 -2.322
0.085281588 0.7987656 -2.345
0.079996884 0.79467815 -2.3329999
0.074794263 0.79093122 -2.322
0.069697633 0.78786564 -2.313
0.064694516 0.78548127 -2.306
0.059902329 0.78548127 -2.306
0.055110142 0.78548127 -2.306
0.050339777 0.78582186 -2.3069999
0.045545511 0.78582186 -2.3069999
0.040751249 0.78582186 -2.3069999
0.035956983 0.78582186 -2.3069999
0.031162718 0.78582186 -2.3069999
0.026368454 0.78582186 -2.3069999
0.02157419 0.78582186 -2.3069999
0.016787199 0.7861625 -2.3080001
0.011990856 0.7861625 -2.3080001
0.0071913963 0.78582186 -2.3069999
0.0023981712 0.7861625 -2.3080001
-0.0023981712 0.7861625 -2.3080001
-0.0071945139 0.7861625 -2.3080001
-0.011990856 0.7861625 -2.3080001
-0.016787199 0.7861625 -2.3080001
-0.02158354 0.7861625 -2.3080001
-0.026379883 0.7861625 -2.3080001
-0.031176226 0.7861625 -2.3080001
-0.035988156 0.78650314 -2.309
-0.040786576 0.78650314 -2.309
-0.045584995 0.78650314 -2.309
-0.050383415 0.78650314 -2.309
-0.055181839 0.78650314 -2.309
-0.059980258 0.78650314 -2.309
-0.064778678 0.78650314 -2.309
-0.069577098 0.78650314 -2.309
-0.074375518 0.78650314 -2.309
-0.079173937 0.78650314 -2.309
-0.084008731 0.78684378 -2.3099999
-0.088809229 0.78684378 -2.3099999
-0.093609728 0.78684378 -2.3099999
-0.098410226 0.78684378 -2.3099999
-0.10321072 0.78684378 -2.3099999
-0.10801122 0.78684378 -2.3099999
-0.11281172 0.78684378 -2.3099999
-0.11761222 0.78684378 -2.3099999
-0.12241272 0.78684378 -2.3099999
-0.12721321 0.78684378 -2.3099999
-0.13201371 0.78684378 -2.3099999
-0.13687344 0.78718436 -2.3110001
-0.14167602 0.78718436 -2.3110001
-0.14647859 0.78718436 -2.3110001
-0.15128118 0.78718436 -2.3110001
-0.15608375 0.78718436 -2.3110001
-0.16088633 0.78718436 -2.3110001
-0.1656889 0.78718436 -2.3110001
-0.17597672 0.79025 -2.3199999
0.085136116 0.80228019 -2.3410001
0.079928301 0.7988531 -2.3310001
0.074762054 0.79542607 -2.3210001
0.069697633 0.79268438 -2.313
0.064694516 0.79028541 -2.306
0.059902329 0.79028541 -2.306
0.055134039 0.79062814 -2.3069999
0.050339777 0.79062814 -2.3069999
0.045545511 0.79062814 -2.3069999
0.040751249 0.79062814 -2.3069999
0.035956983 0.79062814 -2.3069999
0.031162718 0.79062814 -2.3069999
0.026368454 0.79062814 -2.3069999
0.02157419 0.79062814 -2.3069999
0.016779926 0.79062814 -2.3069999
0.011990856 0.79097086 -2.3080001
0.0071913963 0.79062814 -2.3069999
0.0023981712 0.79097086 -2.3080001
-0.0023981712 0.79097086 -2.3080001
-0.0071945139 0.79097086 -2.3080001
-0.011990856 0.79097086 -2.3080001
-0.016787199 0.79097086 -2.3080001
-0.02158354 0.79097086 -2.3080001
-0.026379883 0.79097086 -2.3080001
-0.031176226 0.79097086 -2.3080001
-0.035988156 0.79131353 -2.309
-0.04076891 0.79097086 -2.3080001
-0.045584995 0.79131353 -2.309
-0.050383415 0.79131353 -2.309
-0.055181839 0.79131353 -2.309
-0.059980258 0.79131353 -2.309
-0.064778678 0.79131353 -2.309
-0.069577098 0.79131353 -2.309
-0.074375518 0.79131353 -2.309
-0.079173937 0.79131353 -2.309
-0.083972357 0.79131353 -2.309
-0.088809229 0.79165626 -2.3099999
-0.093609728 0.79165626 -2.3099999
-0.098410226 0.79165626 -2.3099999
-0.10321072 0.79165626 -2.3099999
-0.10801122 0.79165626 -2.3099999
-0.11281172 0.79165626 -2.3099999
-0.11761222 0.79165626 -2.3099999
-0.12241272 0.79165626 -2.3099999
-0.12721321 0.79165626 -2.3099999
-0.13207087 0.79199898 -2.3110001
-0.13687344 0.79199898 -2.3110001
-0.14167602 0.79199898 -2.3110001
-0.14647859 0.79199898 -2.3110001
-0.15128118 0.79199898 -2.3110001
-0.15608375 0.79199898 -2.3110001
-0.16088633 0.79199898 -2.3110001
-0.1656889 0.79199898 -2.3110001
-0.17597672 0.79508334 -2.3199999
0.085136116 0.80715728 -2.3410001
0.079962596 0.80405414 -2.332
0.074762054 0.80026144 -2.3210001
0.069667496 0.79715836 -2.312
0.064694516 0.7950896 -2.306
0.059902329 0.7950896 -2.306
0.055134039 0.79543436 -2.3069999
0.050317954 0.7950896 -2.306
0.045545511 0.79543436 -2.3069999
0.040751249 0.79543436 -2.3069999
0.035956983 0.79543436 -2.3069999
0.031162718 0.79543436 -2.3069999
0.026368454 0.79543436 -2.3069999
0.02157419 0.79543436 -2.3069999
0.016779926 0.79543436 -2.3069999
0.011985661 0.79543436 -2.3069999
0.0071913963 0.79543436 -2.3069999
0.0023981712 0.79577917 -2.3080001
-0.0023981712 0.79577917 -2.3080001
-0.0071945139 0.79577917 -2.3080001
-0.011990856 0.79577917 -2.3080001
-0.016787199 0.79577917 -2.3080001
-0.02158354 0.79577917 -2.3080001
-0.026379883 0.79577917 -2.3080001
-0.031176226 0.79577917 -2.3080001
-0.035988156 0.79612398 -2.309
-0.04076891 0.79577917 -2.3080001
-0.045584995 0.79612398 -2.309
-0.050383415 0.79612398 -2.309
-0.055181839 0.79612398 -2.309
-0.059980258 0.79612398 -2.309
-0.064778678 0.79612398 -2.309
-0.069577098 0.79612398 -2.309
-0.074375518 0.79612398 -2.309
-0.079173937 0.79612398 -2.309
-0.084008731 0.79646873 -2.3099999
-0.088770784 0.79612398 -2.309
-0.093609728 0.79646873 -2.3099999
-0.098410226 0.79646873 -2.3099999
-0.10321072 0.79646873 -2.3099999
-0.10801122 0.79646873 -2.3099999
-0.11281172 0.79646873 -2.3099999
-0.11761222 0.79646873 -2.3099999
-0.12241272 0.79646873 -2.3099999
-0.12721321 0.79646873 -2.3099999
-0.13201371 0.79646873 -2.3099999
-0.13687344 0.79681355 -2.3110001
-0.14167602 0.79681355 -2.3110001
-0.14647859 0.79681355 -2.3110001
-0.15128118 0.79681355 -2.3110001
-0.15608375 0.79681355 -2.3110001
-0.16088633 0.79681355 -2.3110001
-0.1656889 0.79681355 -2.3110001
-0.17612843 0.80060625 -2.322
0.085136116 0.81203437 -2.3410001
0.079894014 0.80821878 -2.3299999
0.074762054 0.80509686 -2.3210001
0.069637366 0.80162811 -2.3110001
0.064694516 0.79989374 -2.306
0.059928305 0.80024064 -2.3069999
0.055110142 0.79989374 -2.306
0.050317954 0.79989374 -2.306
0.045545511 0.80024064 -2.3069999
0.040751249 0.80024064 -2.3069999
0.035956983 0.80024064 -2.3069999
0.031162718 0.80024064 -2.3069999
0.026368454 0.80024064 -2.3069999
0.02157419 0.80024064 -2.3069999
0.016779926 0.80024064 -2.3069999
0.011985661 0.80024064 -2.3069999
0.0071945139 0.80058748 -2.3080001
0.0023981712 0.80058748 -2.3080001
-0.0023981712 0.80058748 -2.3080001
-0.0071945139 0.80058748 -2.3080001
-0.011990856 0.80058748 -2.3080001
-0.016787199 0.80058748 -2.3080001
-0.02158354 0.80058748 -2.3080001
-0.026379883 0.80058748 -2.3080001
-0.031176226 0.80058748 -2.3080001
-0.035988156 0.80093437 -2.309
-0.040786576 0.80093437 -2.309
-0.045584995 0.80093437 -2.309
-0.050383415 0.80093437 -2.309
-0.055181839 0.80093437 -2.309
-0.059980258 0.80093437 -2.309
-0.064778678 0.80093437 -2.309
-0.069577098 0.80093437 -2.309
-0.074375518 0.80093437 -2.309
-0.079208232 0.80128127 -2.3099999
-0.084008731 0.80128127 -2.3099999
-0.088809229 0.80128127 -2.3099999
-0.093609728 0.80128127 -2.3099999
-0.098410226 0.80128127 -2.3099999
-0.10321072 0.80128127 -2.3099999
-0.10801122 0.80128127 -2.3099999
-0.11281172 0.80128127 -2.3099999
-0.11761222 0.80128127 -2.3099999
-0.12241272 0.80128127 -2.3099999
-0.12721321 0.80128127 -2.3099999
-0.13207087 0.80162811 -2.3110001
-0.13681422 0.80128127 -2.3099999
-0.14167602 0.80162811 -2.3110001
-0.14647859 0.80162811 -2.3110001
-0.15128118 0.80162811 -2.3110001
-0.15608375 0.80162811 -2.3110001
-0.16088633 0.80162811 -2.3110001
-0.1656889 0.80162811 -2.3110001
-0.17612843 0.80544376 -2.322
0.085099749 0.81656247 -2.3399999
0.079894014 0.81307292 -2.3299999
0.074729845 0.80958331 -2.3199999
0.069607235 0.80609375 -2.3099999
0.064694516 0.80469793 -2.306
0.059902329 0.80469793 -2.306
0.055110142 0.80469793 -2.306
0.050339777 0.80504686 -2.3069999
0.045545511 0.80504686 -2.3069999
0.040751249 0.80504686 -2.3069999
0.035956983 0.80504686 -2.3069999
0.031162718 0.80504686 -2.3069999
0.026368454 0.80504686 -2.3069999
0.02157419 0.80504686 -2.3069999
0.016779926 0.80504686 -2.3069999
0.011990856 0.80539584 -2.3080001
0.0071913963 0.80504686 -2.3069999
0.0023981712 0.80539584 -2.3080001
-0.0023981712 0.80539584 -2.3080001
-0.0071945139 0.80539584 -2.3080001
-0.011990856 0.80539584 -2.3080001
-0.016787199 0.80539584 -2.3080001
-0.02158354 0.80539584 -2.3080001
-0.026379883 0.80539584 -2.3080001
-0.031176226 0.80539584 -2.3080001
-0.035972569 0.80539584 -2.3080001
-0.04076891 0.80539584 -2.3080001
-0.045584995 0.80574477 -2.309
-0.050383415 0.80574477 -2.309
-0.055181839 0.80574477 -2.309
-0.059980258 0.80574477 -2.309
-0.064778678 0.80574477 -2.309
-0.069577098 0.80574477 -2.309
-0.074375518 0.80574477 -2.309
-0.079173937 0.80574477 -2.309
-0.084008731 0.80609375 -2.3099999
-0.088809229 0.80609375 -2.3099999
-0.093609728 0.80609375 -2.3099999
-0.098410226 0.80609375 -2.3099999
-0.10321072 0.80609375 -2.3099999
-0.10801122 0.80609375 -2.3099999
-0.11281172 0.80609375 -2.3099999
-0.11761222 0.80609375 -2.3099999
-0.12241272 0.80609375 -2.3099999
-0.12721321 0.80609375 -2.3099999
-0.13207087 0.80644274 -2.3110001
-0.13687344 0.80644274 -2.3110001
-0.14167602 0.80644274 -2.3110001
-0.14647859 0.80644274 -2.3110001
-0.15128118 0.80644274 -2.3110001
-0.15608375 0.80644274 -2.3110001
-0.16088633 0.80644274 -2.3110001
-0.1656889 0.80644274 -2.3110001
-0.17605257 0.80993229 -2.3210001
0.085027017 0.82073539 -2.3380001
0.079859726 0.81757605 -2.329
0.074697629 0.81406564 -2.319
0.069637366 0.8112573 -2.3110001
0.064694516 0.80950207 -2.306
0.059902329 0.80950207 -2.306
0.055110142 0.80950207 -2.306
0.050339777 0.80985314 -2.3069999
0.045545511 0.80985314 -2.3069999
0.040751249 0.80985314 -2.3069999
0.035956983 0.80985314 -2.3069999
0.031162718 0.80985314 -2.3069999
0.026368454 0.80985314 -2.3069999
0.02157419 0.80985314 -2.3069999
0.016779926 0.80985314 -2.3069999
0.011985661 0.80985314 -2.3069999
0.0071913963 0.80985314 -2.3069999
0.0023981712 0.81020415 -2.3080001
-0.0023981712 0.81020415 -2.3080001
-0.0071945139 0.81020415 -2.3080001
-0.011990856 0.81020415 -2.3080001
-0.016787199 0.81020415 -2.3080001
-0.02158354 0.81020415 -2.3080001
-0.026379883 0.81020415 -2.3080001
-0.031176226 0.81020415 -2.3080001
-0.035972569 0.81020415 -2.3080001
-0.04076891 0.81020415 -2.3080001
-0.045584995 0.81055522 -2.309
-0.050383415 0.81055522 -2.309
-0.055181839 0.81055522 -2.309
-0.059980258 0.81055522 -2.309
-0.064778678 0.81055522 -2.309
-0.069577098 0.81055522 -2.309
-0.074375518 0.81055522 -2.309
-0.079208232 0.81090623 -2.3099999
-0.083972357 0.81055522 -2.309
-0.088809229 0.81090623 -2.3099999
-0.093609728 0.81090623 -2.3099999
-0.098410226 0.81090623 -2.3099999
-0.10321072 0.81090623 -2.3099999
-0.10801122 0.81090623 -2.3099999
-0.11281172 0.81090623 -2.3099999
-0.11761222 0.81090623 -2.3099999
-0.12241272 0.81090623 -2.3099999
-0.12721321 0.81090623 -2.3099999
-0.13201371 0.81090623 -2.3099999
-0.13687344 0.8112573 -2.3110001
-0.14167602 0.8112573 -2.3110001
-0.14647859 0.8112573 -2.3110001
-0.15128118 0.8112573 -2.3110001
-0.15608375 0.8112573 -2.3110001
-0.16088633 0.8112573 -2.3110001
-0.1656889 0.8112573 -2.3110001
-0.17620428 0.8154698 -2.323
0.085063383 0.82595938 -2.339
0.079859726 0.82242811 -2.329
0.07466542 0.81854373 -2.3180001
0.069637366 0.81607187 -2.3110001
0.064694516 0.81430626 -2.306
0.059902329 0.81430626 -2.306
0.055110142 0.81430626 -2.306
0.050339777 0.81465936 -2.3069999
0.045545511 0.81465936 -2.3069999
0.040751249 0.81465936 -2.3069999
0.035956983 0.81465936 -2.3069999
0.031162718 0.81465936 -2.3069999
0.026368454 0.81465936 -2.3069999
0.02157419 0.81465936 -2.3069999
0.016779926 0.81465936 -2.3069999
0.011985661 0.81465936 -2.3069999
0.0071913963 0.81465936 -2.3069999
0.0023981712 0.81501251 -2.3080001
-0.0023981712 0.81501251 -2.3080001
-0.0071945139 0.81501251 -2.3080001
-0.011990856 0.81501251 -2.3080001
-0.016787199 0.81501251 -2.3080001
-0.02158354 0.81501251 -2.3080001
-0.026379883 0.81501251 -2.3080001
-0.031176226 0.81501251 -2.3080001
-0.035972569 0.81501251 -2.3080001
-0.040786576 0.81536561 -2.309
-0.045584995 0.81536561 -2.309
-0.050383415 0.81536561 -2.309
-0.055181839 0.81536561 -2.309
-0.059980258 0.81536561 -2.309
-0.064778678 0.81536561 -2.309
-0.069577098 0.81536561 -2.309
-0.074375518 0.81536561 -2.309
-0.079173937 0.81536561 -2.309
-0.084008731 0.81571877 -2.3099999
-0.088809229 0.81571877 -2.3099999
-0.093609728 0.81571877 -2.3099999
-0.098410226 0.81571877 -2.3099999
-0.10321072 0.81571877 -2.3099999
-0.10801122 0.81571877 -2.3099999
-0.11281172 0.81571877 -2.3099999
-0.11761222 0.81571877 -2.3099999
-0.12241272 0.81571877 -2.3099999
-0.12726828 0.81607187 -2.3110001
-0.13207087 0.81607187 -2.3110001
-0.13687344 0.81607187 -2.3110001
-0.14167602 0.81607187 -2.3110001
-0.14647859 0.81607187 -2.3110001
-0.15128118 0.81607187 -2.3110001
-0.15608375 0.81607187 -2.3110001
-0.16088633 0.81607187 -2.3110001
-0.1656889 0.81607187 -2.3110001
-0.17612843 0.81995624 -2.322
0.085027017 0.83047706 -2.3380001
0.079825439 0.82692498 -2.3280001
0.07466542 0.8233729 -2.3180001
0.069607235 0.82053125 -2.3099999
0.064694516 0.81911039 -2.306
0.059902329 0.81911039 -2.306
0.055110142 0.81911039 -2.306
0.050339777 0.81946564 -2.3069999
0.045545511 0.81946564 -2.3069999
0.040751249 0.81946564 -2.3069999
0.035956983 0.81946564 -2.3069999
0.031162718 0.81946564 -2.3069999
0.026368454 0.81946564 -2.3069999
0.02157419 0.81946564 -2.3069999
0.016779926 0.81946564 -2.3069999
0.011990856 0.81982082 -2.3080001
0.0071945139 0.81982082 -2.3080001
0.0023981712 0.81982082 -2.3080001
-0.0023981712 0.81982082 -2.3080001
-0.0071945139 0.81982082 -2.3080001
-0.011990856 0.81982082 -2.3080001
-0.016787199 0.81982082 -2.3080001
-0.02158354 0.81982082 -2.3080001
-0.026379883 0.81982082 -2.3080001
-0.031176226 0.81982082 -2.3080001
-0.035972569 0.81982082 -2.3080001
-0.04076891 0.81982082 -2.3080001
-0.045584995 0.82017606 -2.309
-0.050383415 0.82017606 -2.309
-0.055181839 0.82017606 -2.309
-0.059980258 0.82017606 -2.309
-0.064778678 0.82017606 -2.309
-0.069577098 0.82017606 -2.309
-0.074375518 0.82017606 -2.309
-0.079173937 0.82017606 -2.309
-0.084008731 0.82053125 -2.3099999
-0.088809229 0.82053125 -2.3099999
-0.093609728 0.82053125 -2.3099999
-0.098410226 0.82053125 -2.3099999
-0.10321072 0.82053125 -2.3099999
-0.10801122 0.82053125 -2.3099999
-0.11281172 0.82053125 -2.3099999
-0.11761222 0.82053125 -2.3099999
-0.12241272 0.82053125 -2.3099999
-0.12721321 0.82053125 -2.3099999
-0.13207087 0.82088643 -2.3110001
-0.13687344 0.82088643 -2.3110001
-0.14167602 0.82088643 -2.3110001
-0.14647859 0.82088643 -2.3110001
-0.15128118 0.82088643 -2.3110001
-0.15608375 0.82088643 -2.3110001
-0.16088633 0.82088643 -2.3110001
-0.1656889 0.82088643 -2.3110001
-0.17597672 0.82408333 -2.3199999
0.08499065 0.83499062 -2.3369999
0.079756856 0.83106041 -2.326
0.074633211 0.8278448 -2.3169999
0.069637366 0.82570106 -2.3110001
0.064694516 0.82391459 -2.306
0.059928305 0.82427186 -2.3069999
0.055110142 0.82391459 -2.306
0.050317954 0.82391459 -2.306
0.045545511 0.82427186 -2.3069999
0.040751249 0.82427186 -2.3069999
0.035956983 0.82427186 -2.3069999
0.031162718 0.82427186 -2.3069999
0.026368454 0.82427186 -2.3069999
0.02157419 0.82427186 -2.3069999
0.016779926 0.82427186 -2.3069999
0.011985661 0.82427186 -2.3069999
0.0071945139 0.82462919 -2.3080001
0.0023981712 0.82462919 -2.3080001
-0.0023981712 0.82462919 -2.3080001
-0.0071945139 0.82462919 -2.3080001
-0.011990856 0.82462919 -2.3080001
-0.016787199 0.82462919 -2.3080001
-0.02158354 0.82462919 -2.3080001
-0.026379883 0.82462919 -2.3080001
-0.031176226 0.82462919 -2.3080001
-0.035972569 0.82462919 -2.3080001
-0.04076891 0.82462919 -2.3080001
-0.045584995 0.82498646 -2.309
-0.050383415 0.82498646 -2.309
-0.055181839 0.82498646 -2.309
-0.059980258 0.82498646 -2.309
-0.064778678 0.82498646 -2.309
-0.069577098 0.82498646 -2.309
-0.074375518 0.82498646 -2.309
-0.079173937 0.82498646 -2.309
-0.083972357 0.82498646 -2.309
-0.088770784 0.82498646 -2.309
-0.093609728 0.82534373 -2.3099999
-0.098410226 0.82534373 -2.3099999
-0.10321072 0.82534373 -2.3099999
-0.10801122 0.82534373 -2.3099999
-0.11281172 0.82534373 -2.3099999
-0.11761222 0.82534373 -2.3099999
-0.12241272 0.82534373 -2.3099999
-0.12726828 0.82570106 -2.3110001
-0.13207087 0.82570106 -2.3110001
-0.13687344 0.82570106 -2.3110001
-0.14167602 0.82570106 -2.3110001
-0.14647859 0.82570106 -2.3110001
-0.15128118 0.82570106 -2.3110001
-0.15608375 0.82570106 -2.3110001
-0.16088633 0.82570106 -2.3110001
-0.1656889 0.82570106 -2.3110001
-0.17612843 0.82963127 -2.322
0.08499065 0.83985937 -2.3369999
0.079756856 0.83590627 -2.326
0.074633211 0.83267188 -2.3169999
0.069667496 0.83087498 -2.312
0.064694516 0.82871872 -2.306
0.059902329 0.82871872 -2.306
0.055110142 0.82871872 -2.306
0.050339777 0.82907814 -2.3069999
0.045545511 0.82907814 -2.3069999
0.040751249 0.82907814 -2.3069999
0.035956983 0.82907814 -2.3069999
0.031162718 0.82907814 -2.3069999
0.026368454 0.82907814 -2.3069999
0.02157419 0.82907814 -2.3069999
0.016779926 0.82907814 -2.3069999
0.011985661 0.82907814 -2.3069999
0.0071945139 0.82943749 -2.3080001
0.0023981712 0.82943749 -2.3080001
-0.0023981712 0.82943749 -2.3080001
-0.0071945139 0.82943749 -2.3080001
-0.011990856 0.82943749 -2.3080001
-0.016787199 0.82943749 -2.3080001
-0.02158354 0.82943749 -2.3080001
-0.026379883 0.82943749 -2.3080001
-0.031176226 0.82943749 -2.3080001
-0.035972569 0.82943749 -2.3080001
-0.040786576 0.82979685 -2.309
-0.045584995 0.82979685 -2.309
-0.050383415 0.82979685 -2.309
-0.055181839 0.82979685 -2.309
-0.059980258 0.82979685 -2.309
-0.064778678 0.82979685 -2.309
-0.069577098 0.82979685 -2.309
-0.074375518 0.82979685 -2.309
-0.079173937 0.82979685 -2.309
-0.084008731 0.83015627 -2.3099999
-0.088809229 0.83015627 -2.3099999
-0.093609728 0.83015627 -2.3099999
-0.098410226 0.83015627 -2.3099999
-0.10321072 0.83015627 -2.3099999
-0.10801122 0.83015627 -2.3099999
-0.11281172 0.83015627 -2.3099999
-0.11761222 0.83015627 -2.3099999
-0.12246571 0.83051562 -2.3110001
-0.12721321 0.83015627 -2.3099999
-0.13207087 0.83051562 -2.3110001
-0.13687344 0.83051562 -2.3110001
-0.14167602 0.83051562 -2.3110001
-0.14647859 0.83051562 -2.3110001
-0.15128118 0.83051562 -2.3110001
-0.15608375 0.83051562 -2.3110001
-0.16088633 0.83051562 -2.3110001
-0.1656889 0.83051562 -2.3110001
-0.17605257 0.83410937 -2.3210001
0.08499065 0.84472811 -2.3369999
0.079825439 0.84147501 -2.3280001
0.074633211 0.83749896 -2.3169999
0.069637366 0.83533019 -2.3110001
0.064694516 0.83352292 -2.306
0.059902329 0.83352292 -2.306
0.055110142 0.83352292 -2.306
0.050317954 0.83352292 -2.306
0.045545511 0.83388436 -2.3069999
0.040751249 0.83388436 -2.3069999
0.035956983 0.83388436 -2.3069999
0.031162718 0.83388436 -2.3069999
0.026368454 0.83388436 -2.3069999
0.02157419 0.83388436 -2.3069999
0.016779926 0.83388436 -2.3069999
0.011985661 0.83388436 -2.3069999
0.0071945139 0.83424586 -2.3080001
0.0023981712 0.83424586 -2.3080001
-0.0023981712 0.83424586 -2.3080001
-0.0071945139 0.83424586 -2.3080001
-0.011990856 0.83424586 -2.3080001
-0.016787199 0.83424586 -2.3080001
-0.02158354 0.83424586 -2.3080001
-0.026379883 0.83424586 -2.3080001
-0.031176226 0.83424586 -2.3080001
-0.035988156 0.8346073 -2.309
-0.040786576 0.8346073 -2.309
-0.045584995 0.8346073 -2.309
-0.050383415 0.8346073 -2.309
-0.055181839 0.8346073 -2.309
-0.059980258 0.8346073 -2.309
-0.064778678 0.8346073 -2.309
-0.069577098 0.8346073 -2.309
-0.074375518 0.8346073 -2.309
-0.079173937 0.8346073 -2.309
-0.084008731 0.83496875 -2.3099999
-0.088809229 0.83496875 -2.3099999
-0.093609728 0.83496875 -2.3099999
-0.098410226 0.83496875 -2.3099999
-0.10321072 0.83496875 -2.3099999
-0.10801122 0.83496875 -2.3099999
-0.11281172 0.83496875 -2.3099999
-0.11761222 0.83496875 -2.3099999
-0.12241272 0.83496875 -2.3099999
-0.12721321 0.83496875 -2.3099999
-0.13201371 0.83496875 -2.3099999
-0.13687344 0.83533019 -2.3110001
-0.14167602 0.83533019 -2.3110001
-0.14647859 0.83533019 -2.3110001
-0.15128118 0.83533019 -2.3110001
-0.15608375 0.83533019 -2.3110001
-0.16088633 0.83533019 -2.3110001
-0.1656889 0.83533019 -2.3110001
-0.17597672 0.83858335 -2.3199999
0.08491791 0.8488698 -2.335
0.079722568 0.84523439 -2.325
0.074633211 0.84232605 -2.3169999
0.069577098 0.8394177 -2.309
0.064694516 0.83832711 -2.306
0.059902329 0.83832711 -2.306
0.055110142 0.83832711 -2.306
0.050339777 0.83869064 -2.3069999
0.045545511 0.83869064 -2.3069999
0.040751249 0.83869064 -2.3069999
0.035956983 0.83869064 -2.3069999
0.031162718 0.83869064 -2.3069999
0.026368454 0.83869064 -2.3069999
0.02157419 0.83869064 -2.3069999
0.016779926 0.83869064 -2.3069999
0.011985661 0.83869064 -2.3069999
0.0071945139 0.83905417 -2.3080001
0.0023981712 0.83905417 -2.3080001
-0.0023981712 0.83905417 -2.3080001
-0.0071945139 0.83905417 -2.3080001
-0.011990856 0.83905417 -2.3080001
-0.016787199 0.83905417 -2.3080001
-0.02158354 0.83905417 -2.3080001
-0.026379883 0.83905417 -2.3080001
-0.031176226 0.83905417 -2.3080001
-0.035972569 0.83905417 -2.3080001
-0.04076891 0.83905417 -2.3080001
-0.045584995 0.8394177 -2.309
-0.050383415 0.8394177 -2.309
-0.055181839 0.8394177 -2.309
-0.059980258 0.8394177 -2.309
-0.064778678 0.8394177 -2.309
-0.069577098 0.8394177 -2.309
-0.074375518 0.8394177 -2.309
-0.079208232 0.83978122 -2.3099999
-0.084008731 0.83978122 -2.3099999
-0.088809229 0.83978122 -2.3099999
-0.093609728 0.83978122 -2.3099999
-0.098410226 0.83978122 -2.3099999
-0.10321072 0.83978122 -2.3099999
-0.10801122 0.83978122 -2.3099999
-0.11281172 0.83978122 -2.3099999
-0.11761222 0.83978122 -2.3099999
-0.12241272 0.83978122 -2.3099999
-0.12721321 0.83978122 -2.3099999
-0.13207087 0.84014481 -2.3110001
-0.13681422 0.83978122 -2.3099999
-0.14167602 0.84014481 -2.3110001
-0.14647859 0.84014481 -2.3110001
-0.15128118 0.84014481 -2.3110001
-0.15608375 0.84014481 -2.3110001
-0.16088633 0.84014481 -2.3110001
-0.1656889 0.84014481 -2.3110001
-0.17056525 0.84050834 -2.312
-0.17597672 0.84341669 -2.3199999
0.08491791 0.85373437 -2.335
0.079722568 0.85007811 -2.325
0.074633211 0.84715313 -2.3169999
0.069607235 0.84459376 -2.3099999
0.064694516 0.84313124 -2.306
0.059902329 0.84313124 -2.306
0.055110142 0.84313124 -2.306
0.050339777 0.84349686 -2.3069999
0.045545511 0.84349686 -2.3069999
0.040751249 0.84349686 -2.3069999
0.035956983 0.84349686 -2.3069999
0.031162718 0.84349686 -2.3069999
0.026368454 0.84349686 -2.3069999
0.02157419 0.84349686 -2.3069999
0.016779926 0.84349686 -2.3069999
0.011985661 0.84349686 -2.3069999
0.0071945139 0.84386247 -2.3080001
0.0023981712 0.84386247 -2.3080001
-0.0023981712 0.84386247 -2.3080001
-0.0071945139 0.84386247 -2.3080001
-0.011990856 0.84386247 -2.3080001
-0.016787199 0.84386247 -2.3080001
-0.02158354 0.84386247 -2.3080001
-0.026379883 0.84386247 -2.3080001
-0.031176226 0.84386247 -2.3080001
-0.035972569 0.84386247 -2.3080001
-0.040786576 0.84422815 -2.309
-0.045584995 0.84422815 -2.309
-0.050383415 0.84422815 -2.309
-0.055181839 0.84422815 -2.309
-0.059980258 0.84422815 -2.309
-0.064778678 0.84422815 -2.309
-0.069577098 0.84422815 -2.309
-0.074375518 0.84422815 -2.309
-0.079173937 0.84422815 -2.309
-0.083972357 0.84422815 -2.309
-0.088809229 0.84459376 -2.3099999
-0.093609728 0.84459376 -2.3099999
-0.098410226 0.84459376 -2.3099999
-0.10321072 0.84459376 -2.3099999
-0.10801122 0.84459376 -2.3099999
-0.11281172 0.84459376 -2.3099999
-0.11761222 0.84459376 -2.3099999
-0.12241272 0.84459376 -2.3099999
-0.12721321 0.84459376 -2.3099999
-0.13201371 0.84459376 -2.3099999
-0.13687344 0.84495938 -2.3110001
-0.14167602 0.84495938 -2.3110001
-0.14647859 0.84495938 -2.3110001
-0.15128118 0.84495938 -2.3110001
-0.15608375 0.84495938 -2.3110001
-0.16088633 0.84495938 -2.3110001
-0.1656889 0.84495938 -2.3110001
-0.17605257 0.84861565 -2.3210001
-0.18705943 0.85483128 -2.3380001
0.08491791 0.85859895 -2.335
0.079688281 0.85455418 -2.3239999
0.074633211 0.85198021 -2.3169999
0.069637366 0.84977394 -2.3110001
0.064694516 0.84793544 -2.306
0.059902329 0.84793544 -2.306
0.055134039 0.84830314 -2.3069999
0.050339777 0.84830314 -2.3069999
0.045545511 0.84830314 -2.3069999
0.040751249 0.84830314 -2.3069999
0.035956983 0.84830314 -2.3069999
0.031162718 0.84830314 -2.3069999
0.026368454 0.84830314 -2.3069999
0.02157419 0.84830314 -2.3069999
0.016779926 0.84830314 -2.3069999
0.011985661 0.84830314 -2.3069999
0.0071913963 0.84830314 -2.3069999
0.0023981712 0.84867084 -2.3080001
-0.0023981712 0.84867084 -2.3080001
-0.0071945139 0.84867084 -2.3080001
-0.011990856 0.84867084 -2.3080001
-0.016787199 0.84867084 -2.3080001
-0.02158354 0.84867084 -2.3080001
-0.026379883 0.84867084 -2.3080001
-0.031176226 0.84867084 -2.3080001
-0.035972569 0.84867084 -2.3080001
-0.04076891 0.84867084 -2.3080001
-0.045584995 0.84903854 -2.309
-0.050383415 0.84903854 -2.309
-0.055181839 0.84903854 -2.309
-0.059980258 0.84903854 -2.309
-0.064778678 0.84903854 -2.309
-0.069577098 0.84903854 -2.309
-0.074375518 0.84903854 -2.309
-0.079173937 0.84903854 -2.309
-0.083972357 0.84903854 -2.309
-0.088809229 0.84940624 -2.3099999
-0.093609728 0.84940624 -2.3099999
-0.098410226 0.84940624 -2.3099999
-0.10321072 0.84940624 -2.3099999
-0.10801122 0.84940624 -2.3099999
-0.11281172 0.84940624 -2.3099999
-0.11761222 0.84940624 -2.3099999
-0.12241272 0.84940624 -2.3099999
-0.12726828 0.84977394 -2.3110001
-0.13207087 0.84977394 -2.3110001
-0.13687344 0.84977394 -2.3110001
-0.14167602 0.84977394 -2.3110001
-0.14647859 0.84977394 -2.3110001
-0.15128118 0.84977394 -2.3110001
-0.15608375 0.84977394 -2.3110001
-0.16088633 0.84977394 -2.3110001
-0.1656889 0.84977394 -2.3110001
-0.17056525 0.85014164 -2.312
-0.17612843 0.85381877 -2.322
0.084845178 0.86272395 -2.3329999
0.079722568 0.85976565 -2.325
0.074600995 0.8564375 -2.316
0.069637366 0.85458857 -2.3110001
0.064694516 0.85273957 -2.306
0.059902329 0.85273957 -2.306
0.055134039 0.85310936 -2.3069999
0.050339777 0.85310936 -2.3069999
0.045545511 0.85310936 -2.3069999
0.040751249 0.85310936 -2.3069999
0.035956983 0.85310936 -2.3069999
0.031162718 0.85310936 -2.3069999
0.026368454 0.85310936 -2.3069999
0.02157419 0.85310936 -2.3069999
0.016779926 0.85310936 -2.3069999
0.011985661 0.85310936 -2.3069999
0.0071913963 0.85310936 -2.3069999
0.0023981712 0.85347915 -2.3080001
-0.0023981712 0.85347915 -2.3080001
-0.0071945139 0.85347915 -2.3080001
-0.011990856 0.85347915 -2.3080001
-0.016787199 0.85347915 -2.3080001
-0.02158354 0.85347915 -2.3080001
-0.026379883 0.85347915 -2.3080001
-0.031189734 0.85384893 -2.309
-0.035988156 0.85384893 -2.309
-0.040786576 0.85384893 -2.309
-0.045584995 0.85384893 -2.309
-0.050383415 0.85384893 -2.309
-0.055181839 0.85384893 -2.309
-0.059980258 0.85384893 -2.309
-0.064778678 0.85384893 -2.309
-0.069577098 0.85384893 -2.309
-0.074375518 0.85384893 -2.309
-0.079173937 0.85384893 -2.309
-0.083972357 0.85384893 -2.309
-0.088809229 0.85421872 -2.3099999
-0.093609728 0.85421872 -2.3099999
-0.098410226 0.85421872 -2.3099999
-0.10321072 0.85421872 -2.3099999
-0.10801122 0.85421872 -2.3099999
-0.11281172 0.85421872 -2.3099999
-0.11761222 0.85421872 -2.3099999
-0.12241272 0.85421872 -2.3099999
-0.12721321 0.85421872 -2.3099999
-0.13207087 0.85458857 -2.3110001
-0.13687344 0.85458857 -2.3110001
-0.14167602 0.85458857 -2.3110001
-0.14647859 0.85458857 -2.3110001
-0.15128118 0.85458857 -2.3110001
-0.15608375 0.85458857 -2.3110001
-0.16088633 0.85458857 -2.3110001
-0.1656889 0.85458857 -2.3110001
-0.17049149 0.85458857 -2.3110001
-0.17620428 0.85902601 -2.323
0.084845178 0.86758435 -2.3329999
0.079653993 0.86386561 -2.323
0.07466542 0.86200625 -2.3180001
0.069607235 0.85903126 -2.3099999
0.064722568 0.85791564 -2.3069999
0.059902329 0.85754377 -2.306
0.055110142 0.85754377 -2.306
0.050339777 0.85791564 -2.3069999
0.045545511 0.85791564 -2.3069999
0.040751249 0.85791564 -2.3069999
0.035956983 0.85791564 -2.3069999
0.031162718 0.85791564 -2.3069999
0.026368454 0.85791564 -2.3069999
0.02157419 0.85791564 -2.3069999
0.016779926 0.85791564 -2.3069999
0.011985661 0.85791564 -2.3069999
0.0071913963 0.85791564 -2.3069999
0.0023981712 0.85828751 -2.3080001
-0.0023981712 0.85828751 -2.3080001
-0.0071945139 0.85828751 -2.3080001
-0.011990856 0.85828751 -2.3080001
-0.016787199 0.85828751 -2.3080001
-0.02158354 0.85828751 -2.3080001
-0.026379883 0.85828751 -2.3080001
-0.031176226 0.85828751 -2.3080001
-0.035972569 0.85828751 -2.3080001
-0.040786576 0.85865939 -2.309
-0.045584995 0.85865939 -2.309
-0.050383415 0.85865939 -2.309
-0.055181839 0.85865939 -2.309
-0.059980258 0.85865939 -2.309
-0.064778678 0.85865939 -2.309
-0.069577098 0.85865939 -2.309
-0.074375518 0.85865939 -2.309
-0.079173937 0.85865939 -2.309
-0.083972357 0.85865939 -2.309
-0.088809229 0.85903126 -2.3099999
-0.093609728 0.85903126 -2.3099999
-0.098410226 0.85903126 -2.3099999
-0.10321072 0.85903126 -2.3099999
-0.10801122 0.85903126 -2.3099999
-0.11281172 0.85903126 -2.3099999
-0.11761222 0.85903126 -2.3099999
-0.12241272 0.85903126 -2.3099999
-0.12721321 0.85903126 -2.3099999
-0.13207087 0.85940313 -2.3110001
-0.13681422 0.85903126 -2.3099999
-0.14167602 0.85940313 -2.3110001
-0.14647859 0.85940313 -2.3110001
-0.15128118 0.85940313 -2.3110001
-0.15608375 0.85940313 -2.3110001
-0.16088633 0.85940313 -2.3110001
-0.1656889 0.85940313 -2.3110001
-0.17056525 0.85977501 -2.312
-0.17597672 0.86274999 -2.3199999
0.084845178 0.87244481 -2.3329999
0.079688281 0.86907917 -2.3239999
0.074633211 0.86646146 -2.3169999
0.069607235 0.86384374 -2.3099999
0.064722568 0.86272186 -2.3069999
0.059928305 0.86272186 -2.3069999
0.055134039 0.86272186 -2.3069999
0.050317954 0.8623479 -2.306
0.045545511 0.86272186 -2.3069999
0.040751249 0.86272186 -2.3069999
0.035956983 0.86272186 -2.3069999
0.031162718 0.86272186 -2.3069999
0.026368454 0.86272186 -2.3069999
0.02157419 0.86272186 -2.3069999
0.016779926 0.86272186 -2.3069999
0.011985661 0.86272186 -2.3069999
0.0071945139 0.86309582 -2.3080001
0.0023981712 0.86309582 -2.3080001
-0.0023981712 0.86309582 -2.3080001
-0.0071945139 0.86309582 -2.3080001
-0.011990856 0.86309582 -2.3080001
-0.016787199 0.86309582 -2.3080001
-0.02158354 0.86309582 -2.3080001
-0.026379883 0.86309582 -2.3080001
-0.031176226 0.86309582 -2.3080001
-0.035972569 0.86309582 -2.3080001
-0.04076891 0.86309582 -2.3080001
-0.045584995 0.86346978 -2.309
-0.050383415 0.86346978 -2.309
-0.055181839 0.86346978 -2.309
-0.059980258 0.86346978 -2.309
-0.064778678 0.86346978 -2.309
-0.069577098 0.86346978 -2.309
-0.074375518 0.86346978 -2.309
-0.079173937 0.86346978 -2.309
-0.083972357 0.86346978 -2.309
-0.088809229 0.86384374 -2.3099999
-0.093609728 0.86384374 -2.3099999
-0.098410226 0.86384374 -2.3099999
-0.10321072 0.86384374 -2.3099999
-0.10801122 0.86384374 -2.3099999
-0.11281172 0.86384374 -2.3099999
-0.11761222 0.86384374 -2.3099999
-0.12241272 0.86384374 -2.3099999
-0.12726828 0.8642177 -2.3110001
-0.13201371 0.86384374 -2.3099999
-0.13687344 0.8642177 -2.3110001
-0.14167602 0.8642177 -2.3110001
-0.14647859 0.8642177 -2.3110001
-0.15128118 0.8642177 -2.3110001
-0.15608375 0.8642177 -2.3110001
-0.16088633 0.8642177 -2.3110001
-0.1656889 0.8642177 -2.3110001
-0.17056525 0.86459166 -2.312
-0.17612843 0.86833125 -2.322
-0.18142144 0.87057501 -2.3280001
0.084772445 0.87655312 -2.3310001
0.079653993 0.87354481 -2.323
0.074633211 0.87128854 -2.3169999
0.069637366 0.86903226 -2.3110001
0.064694516 0.86715209 -2.306
0.059902329 0.86715209 -2.306
0.055110142 0.86715209 -2.306
0.050317954 0.86715209 -2.306
0.045545511 0.86752814 -2.3069999
0.040751249 0.86752814 -2.3069999
0.035956983 0.86752814 -2.3069999
0.031162718 0.86752814 -2.3069999
0.026368454 0.86752814 -2.3069999
0.02157419 0.86752814 -2.3069999
0.016779926 0.86752814 -2.3069999
0.011990856 0.86790419 -2.3080001
0.0071945139 0.86790419 -2.3080001
0.0023981712 0.86790419 -2.3080001
-0.0023981712 0.86790419 -2.3080001
-0.0071945139 0.86790419 -2.3080001
-0.011990856 0.86790419 -2.3080001
-0.016787199 0.86790419 -2.3080001
-0.02158354 0.86790419 -2.3080001
-0.026379883 0.86790419 -2.3080001
-0.031176226 0.86790419 -2.3080001
-0.035988156 0.86828023 -2.309
-0.040786576 0.86828023 -2.309
-0.045584995 0.86828023 -2.309
-0.050383415 0.86828023 -2.309
-0.055181839 0.86828023 -2.309
-0.059980258 0.86828023 -2.309
-0.064778678 0.86828023 -2.309
-0.069577098 0.86828023 -2.309
-0.074375518 0.86828023 -2.309
-0.079173937 0.86828023 -2.309
-0.083972357 0.86828023 -2.309
-0.088809229 0.86865628 -2.3099999
-0.093609728 0.86865628 -2.3099999
-0.098410226 0.86865628 -2.3099999
-0.10321072 0.86865628 -2.3099999
-0.10801122 0.86865628 -2.3099999
-0.11281172 0.86865628 -2.3099999
-0.11761222 0.86865628 -2.3099999
-0.12241272 0.86865628 -2.3099999
-0.12726828 0.86903226 -2.3110001
-0.13201371 0.86865628 -2.3099999
-0.13687344 0.86903226 -2.3110001
-0.14167602 0.86903226 -2.3110001
-0.14647859 0.86903226 -2.3110001
-0.15128118 0.86903226 -2.3110001
-0.15608375 0.86903226 -2.3110001
-0.16088633 0.86903226 -2.3110001
-0.1656889 0.86903226 -2.3110001
-0.17056525 0.86940831 -2.312
-0.17605257 0.87279272 -2.3210001
0.084736079 0.88103127 -2.3299999
0.079688281 0.87876248 -2.3239999
0.074633211 0.87611562 -2.3169999
0.069607235 0.87346876 -2.3099999
0.064694516 0.87195623 -2.306
0.059902329 0.87195623 -2.306
0.055110142 0.87195623 -2.306
0.050339777 0.87233436 -2.3069999
0.045525771 0.87195623 -2.306
0.040751249 0.87233436 -2.3069999
0.035956983 0.87233436 -2.3069999
0.031162718 0.87233436 -2.3069999
0.026368454 0.87233436 -2.3069999
0.02157419 0.87233436 -2.3069999
0.016779926 0.87233436 -2.3069999
0.011985661 0.87233436 -2.3069999
0.0071945139 0.87271249 -2.3080001
0.0023981712 0.87271249 -2.3080001
-0.0023981712 0.87271249 -2.3080001
-0.0071945139 0.87271249 -2.3080001
-0.011990856 0.87271249 -2.3080001
-0.016787199 0.87271249 -2.3080001
-0.02158354 0.87271249 -2.3080001
-0.026379883 0.87271249 -2.3080001
-0.031189734 0.87309062 -2.309
-0.035972569 0.87271249 -2.3080001
-0.04076891 0.87271249 -2.3080001
-0.045584995 0.87309062 -2.309
-0.050383415 0.87309062 -2.309
-0.055181839 0.87309062 -2.309
-0.059980258 0.87309062 -2.309
-0.064778678 0.87309062 -2.309
-0.069577098 0.87309062 -2.309
-0.074375518 0.87309062 -2.309
-0.079173937 0.87309062 -2.309
-0.083972357 0.87309062 -2.309
-0.088770784 0.87309062 -2.309
-0.093609728 0.87346876 -2.3099999
-0.098410226 0.87346876 -2.3099999
-0.10321072 0.87346876 -2.3099999
-0.10801122 0.87346876 -2.3099999
-0.11281172 0.87346876 -2.3099999
-0.11761222 0.87346876 -2.3099999
-0.12241272 0.87346876 -2.3099999
-0.12721321 0.87346876 -2.3099999
-0.13207087 0.87384689 -2.3110001
-0.13687344 0.87384689 -2.3110001
-0.14167602 0.87384689 -2.3110001
-0.14647859 0.87384689 -2.3110001
-0.15128118 0.87384689 -2.3110001
-0.15608375 0.87384689 -2.3110001
-0.16088633 0.87384689 -2.3110001
-0.1656889 0.87384689 -2.3110001
-0.17056525 0.87422502 -2.312
-0.17590088 0.87687188 -2.319
-0.18134351 0.87989688 -2.3269999
0.084699713 0.8855052 -2.329
0.079688281 0.88360417 -2.3239999
0.074600995 0.88056248 -2.316
0.069607235 0.87828124 -2.3099999
0.064694516 0.87676042 -2.306
0.059902329 0.87676042 -2.306
0.055134039 0.87714064 -2.3069999
0.050339777 0.87714064 -2.3069999
0.045545511 0.87714064 -2.3069999
0.040751249 0.87714064 -2.3069999
0.035956983 0.87714064 -2.3069999
0.031162718 0.87714064 -2.3069999
0.026368454 0.87714064 -2.3069999
0.02157419 0.87714064 -2.3069999
0.016779926 0.87714064 -2.3069999
0.011985661 0.87714064 -2.3069999
0.0071945139 0.87752086 -2.3080001
0.0023981712 0.87752086 -2.3080001
-0.0023981712 0.87752086 -2.3080001
-0.0071945139 0.87752086 -2.3080001
-0.011990856 0.87752086 -2.3080001
-0.016787199 0.87752086 -2.3080001
-0.02158354 0.87752086 -2.3080001
-0.026379883 0.87752086 -2.3080001
-0.031176226 0.87752086 -2.3080001
-0.035972569 0.87752086 -2.3080001
-0.040786576 0.87790102 -2.309
-0.045584995 0.87790102 -2.309
-0.050383415 0.87790102 -2.309
-0.055181839 0.87790102 -2.309
-0.059980258 0.87790102 -2.309
-0.064778678 0.87790102 -2.309
-0.069577098 0.87790102 -2.309
-0.074375518 0.87790102 -2.309
-0.079173937 0.87790102 -2.309
-0.084008731 0.87828124 -2.3099999
-0.088770784 0.87790102 -2.309
-0.093609728 0.87828124 -2.3099999
-0.098410226 0.87828124 -2.3099999
-0.10321072 0.87828124 -2.3099999
-0.10801122 0.87828124 -2.3099999
-0.11281172 0.87828124 -2.3099999
-0.11761222 0.87828124 -2.3099999
-0.12241272 0.87828124 -2.3099999
-0.12721321 0.87828124 -2.3099999
-0.13207087 0.87866145 -2.3110001
-0.13687344 0.87866145 -2.3110001
-0.14167602 0.87866145 -2.3110001
-0.14647859 0.87866145 -2.3110001
-0.15128118 0.87866145 -2.3110001
-0.15608375 0.87866145 -2.3110001
-0.16088633 0.87866145 -2.3110001
-0.1656889 0.87866145 -2.3110001
-0.17049149 0.87866145 -2.3110001
-0.17582501 0.88132292 -2.3180001
-0.18134351 0.88474476 -2.3269999
-0.1867394 0.88740623 -2.3340001
0.084736079 0.89073956 -2.3299999
0.079688281 0.88844585 -2.3239999
0.074633211 0.88576978 -2.3169999
0.069637366 0.88347602 -2.3110001
0.064694516 0.88156456 -2.306
0.059902329 0.88156456 -2.306
0.055134039 0.88194686 -2.3069999
0.050339777 0.88194686 -2.3069999
0.045545511 0.88194686 -2.3069999
0.040751249 0.88194686 -2.3069999
0.035956983 0.88194686 -2.3069999
0.031162718 0.88194686 -2.3069999
0.026368454 0.88194686 -2.3069999
0.02157419 0.88194686 -2.3069999
0.016779926 0.88194686 -2.3069999
0.011985661 0.88194686 -2.3069999
0.0071913963 0.88194686 -2.3069999
0.0023981712 0.88232917 -2.3080001
-0.0023981712 0.88232917 -2.3080001
-0.0071945139 0.88232917 -2.3080001
-0.011990856 0.88232917 -2.3080001
-0.016787199 0.88232917 -2.3080001
-0.02158354 0.88232917 -2.3080001
-0.026379883 0.88232917 -2.3080001
-0.031176226 0.88232917 -2.3080001
-0.035988156 0.88271147 -2.309
-0.04076891 0.88232917 -2.3080001
-0.045584995 0.88271147 -2.309
-0.050383415 0.88271147 -2.309
-0.055181839 0.88271147 -2.309
-0.059980258 0.88271147 -2.309
-0.064778678 0.88271147 -2.309
-0.069577098 0.88271147 -2.309
-0.074375518 0.88271147 -2.309
-0.079208232 0.88309377 -2.3099999
-0.083972357 0.88271147 -2.309
-0.088809229 0.88309377 -2.3099999
-0.093609728 0.88309377 -2.3099999
-0.098410226 0.88309377 -2.3099999
-0.10321072 0.88309377 -2.3099999
-0.10801122 0.88309377 -2.3099999
-0.11281172 0.88309377 -2.3099999
-0.11761222 0.88309377 -2.3099999
-0.12241272 0.88309377 -2.3099999
-0.12721321 0.88309377 -2.3099999
-0.13207087 0.88347602 -2.3110001
-0.13687344 0.88347602 -2.3110001
-0.14167602 0.88347602 -2.3110001
-0.14647859 0.88347602 -2.3110001
-0.15128118 0.88347602 -2.3110001
-0.15608375 0.88347602 -2.3110001
-0.16088633 0.88347602 -2.3110001
-0.1656889 0.88347602 -2.3110001
-0.17049149 0.88347602 -2.3110001
-0.17582501 0.88615209 -2.3180001
-0.18118766 0.8888281 -2.325
-0.18657939 0.89150417 -2.332
0.084736079 0.89559376 -2.3299999
0.079688281 0.89328748 -2.3239999
0.07466542 0.89098126 -2.3180001
0.069607235 0.88790625 -2.3099999
0.064694516 0.88636875 -2.306
0.059902329 0.88636875 -2.306
0.055134039 0.88675314 -2.3069999
0.050339777 0.88675314 -2.3069999
0.045545511 0.88675314 -2.3069999
0.040751249 0.88675314 -2.3069999
0.035956983 0.88675314 -2.3069999
0.031162718 0.88675314 -2.3069999
0.026368454 0.88675314 -2.3069999
0.02157419 0.88675314 -2.3069999
0.016779926 0.88675314 -2.3069999
0.011985661 0.88675314 -2.3069999
0.0071945139 0.88713747 -2.3080001
0.0023981712 0.88713747 -2.3080001
-0.0023981712 0.88713747 -2.3080001
-0.0071945139 0.88713747 -2.3080001
-0.011990856 0.88713747 -2.3080001
-0.016787199 0.88713747 -2.3080001
-0.02158354 0.88713747 -2.3080001
-0.026379883 0.88713747 -2.3080001
-0.031176226 0.88713747 -2.3080001
-0.035972569 0.88713747 -2.3080001
-0.040786576 0.88752186 -2.309
-0.045584995 0.88752186 -2.309
-0.050383415 0.88752186 -2.309
-0.055181839 0.88752186 -2.309
-0.059980258 0.88752186 -2.309
-0.064778678 0.88752186 -2.309
-0.069577098 0.88752186 -2.309
-0.074375518 0.88752186 -2.309
-0.079173937 0.88752186 -2.309
-0.084008731 0.88790625 -2.3099999
-0.088809229 0.88790625 -2.3099999
-0.093609728 0.88790625 -2.3099999
-0.098410226 0.88790625 -2.3099999
-0.10321072 0.88790625 -2.3099999
-0.10801122 0.88790625 -2.3099999
-0.11281172 0.88790625 -2.3099999
-0.11761222 0.88790625 -2.3099999
-0.12246571 0.88829064 -2.3110001
-0.12721321 0.88790625 -2.3099999
-0.13207087 0.88829064 -2.3110001
-0.13687344 0.88829064 -2.3110001
-0.14167602 0.88829064 -2.3110001
-0.14647859 0.88829064 -2.3110001
-0.15128118 0.88829064 -2.3110001
-0.15608375 0.88829064 -2.3110001
-0.16088633 0.88829064 -2.3110001
-0.1656889 0.88829064 -2.3110001
-0.17056525 0.88867497 -2.312
-0.17582501 0.89098126 -2.3180001
-0.18126559 0.89405626 -2.326
-0.18657939 0.89636248 -2.332
0.084736079 0.90044791 -2.3299999
0.079688281 0.89812917 -2.3239999
0.074600995 0.89503747 -2.316
0.069637366 0.89310521 -2.3110001
0.064722568 0.89155936 -2.3069999
0.059902329 0.89117295 -2.306
0.055110142 0.89117295 -2.306
0.050339777 0.89155936 -2.3069999
0.045545511 0.89155936 -2.3069999
0.040751249 0.89155936 -2.3069999
0.035956983 0.89155936 -2.3069999
0.031162718 0.89155936 -2.3069999
0.026368454 0.89155936 -2.3069999
0.02157419 0.89155936 -2.3069999
0.016779926 0.89155936 -2.3069999
0.011985661 0.89155936 -2.3069999
0.0071913963 0.89155936 -2.3069999
0.0023981712 0.89194584 -2.3080001
-0.0023981712 0.89194584 -2.3080001
-0.0071945139 0.89194584 -2.3080001
-0.011990856 0.89194584 -2.3080001
-0.016787199 0.89194584 -2.3080001
-0.02158354 0.89194584 -2.3080001
-0.026379883 0.89194584 -2.3080001
-0.031176226 0.89194584 -2.3080001
-0.035972569 0.89194584 -2.3080001
-0.040786576 0.89233232 -2.309
-0.045584995 0.89233232 -2.309
-0.050383415 0.89233232 -2.309
-0.055181839 0.89233232 -2.309
-0.059980258 0.89233232 -2.309
-0.064778678 0.89233232 -2.309
-0.069577098 0.89233232 -2.309
-0.074375518 0.89233232 -2.309
-0.079173937 0.89233232 -2.309
-0.083972357 0.89233232 -2.309
-0.088809229 0.89271873 -2.3099999
-0.093609728 0.89271873 -2.3099999
-0.098410226 0.89271873 -2.3099999
-0.10321072 0.89271873 -2.3099999
-0.10801122 0.89271873 -2.3099999
-0.11281172 0.89271873 -2.3099999
-0.11761222 0.89271873 -2.3099999
-0.12241272 0.89271873 -2.3099999
-0.12721321 0.89271873 -2.3099999
-0.13201371 0.89271873 -2.3099999
-0.13687344 0.89310521 -2.3110001
-0.14167602 0.89310521 -2.3110001
-0.14647859 0.89310521 -2.3110001
-0.15128118 0.89310521 -2.3110001
-0.15608375 0.89310521 -2.3110001
-0.16088633 0.89310521 -2.3110001
-0.1656889 0.89310521 -2.3110001
-0.17049149 0.89310521 -2.3110001
-0.17574917 0.89542395 -2.3169999
-0.18110973 0.89812917 -2.3239999
-0.18649937 0.90083438 -2.3310001
0.084736079 0.90530211 -2.3299999
0.079688281 0.90297085 -2.3239999
0.07466542 0.90063959 -2.3180001
0.069637366 0.89791977 -2.3110001
0.064722568 0.89636564 -2.3069999
0.059902329 0.89597708 -2.306
0.055110142 0.89597708 -2.306
0.050339777 0.89636564 -2.3069999
0.045545511 0.89636564 -2.3069999
0.040751249 0.89636564 -2.3069999
0.035956983 0.89636564 -2.3069999
0.031162718 0.89636564 -2.3069999
0.026368454 0.89636564 -2.3069999
0.02157419 0.89636564 -2.3069999
0.016779926 0.89636564 -2.3069999
0.011985661 0.89636564 -2.3069999
0.0071913963 0.89636564 -2.3069999
0.0023981712 0.89675415 -2.3080001
-0.0023981712 0.89675415 -2.3080001
-0.0071945139 0.89675415 -2.3080001
-0.011990856 0.89675415 -2.3080001
-0.016787199 0.89675415 -2.3080001
-0.02158354 0.89675415 -2.3080001
-0.026379883 0.89675415 -2.3080001
-0.031176226 0.89675415 -2.3080001
-0.035972569 0.89675415 -2.3080001
-0.04076891 0.89675415 -2.3080001
-0.045584995 0.89714271 -2.309
-0.050383415 0.89714271 -2.309
-0.055181839 0.89714271 -2.309
-0.059980258 0.89714271 -2.309
-0.064778678 0.89714271 -2.309
-0.069577098 0.89714271 -2.309
-0.074375518 0.89714271 -2.309
-0.079173937 0.89714271 -2.309
-0.084008731 0.89753127 -2.3099999
-0.088809229 0.89753127 -2.3099999
-0.093609728 0.89753127 -2.3099999
-0.098410226 0.89753127 -2.3099999
-0.10321072 0.89753127 -2.3099999
-0.10801122 0.89753127 -2.3099999
-0.11281172 0.89753127 -2.3099999
-0.11761222 0.89753127 -2.3099999
-0.12241272 0.89753127 -2.3099999
-0.12721321 0.89753127 -2.3099999
